ply
format ascii 1.0
element vertex 1030
property float x
property float y
property float z
property uchar red
property uchar green
property uchar blue
end_header
246.868637 -148.650314 558.000000 255 255 255
247.831039 -148.650314 558.000000 255 255 255
1761.279541 -991.002075 3720.000000 255 255 255
1767.695679 -991.002075 3720.000000 255 255 255
1774.111572 -991.002075 3720.000000 255 255 255
1807.331299 -1005.920349 3776.000000 255 255 255
1806.837646 -922.537659 3463.000000 255 255 255
1812.810425 -922.537659 3463.000000 255 255 255
1794.098511 -910.016907 3416.000000 255 255 255
1824.755981 -922.537659 3463.000000 255 255 255
1830.728760 -922.537659 3463.000000 255 255 255
1836.701416 -922.537659 3463.000000 255 255 255
1842.674316 -922.537659 3463.000000 255 255 255
1848.647095 -922.537659 3463.000000 255 255 255
-868.388062 -777.081909 2936.000000 255 255 255
-863.324158 -777.081909 2936.000000 255 255 255
-858.260376 -777.081909 2936.000000 255 255 255
-853.196533 -777.081909 2936.000000 255 255 255
-848.132690 -777.081909 2936.000000 255 255 255
-843.068909 -777.081909 2936.000000 255 255 255
-838.005005 -777.081909 2936.000000 255 255 255
-832.941162 -777.081909 2936.000000 255 255 255
-818.290161 -768.083008 2902.000000 255 255 255
-813.285034 -768.083008 2902.000000 255 255 255
-808.279785 -768.083008 2902.000000 255 255 255
-803.274597 -768.083008 2902.000000 255 255 255
-807.622009 -777.081909 2936.000000 255 255 255
-802.558167 -777.081909 2936.000000 255 255 255
-797.494263 -777.081909 2936.000000 255 255 255
-792.430420 -777.081909 2936.000000 255 255 255
-787.366638 -777.081909 2936.000000 255 255 255
-782.302734 -777.081909 2936.000000 255 255 255
-777.238892 -777.081909 2936.000000 255 255 255
-772.175049 -777.081909 2936.000000 255 255 255
-767.111267 -777.081909 2936.000000 255 255 255
-762.047363 -777.081909 2936.000000 255 255 255
-756.983521 -777.081909 2936.000000 255 255 255
-751.919739 -777.081909 2936.000000 255 255 255
-746.855896 -777.081909 2936.000000 255 255 255
-741.791992 -777.081909 2936.000000 255 255 255
-736.728149 -777.081909 2936.000000 255 255 255
-731.664307 -777.081909 2936.000000 255 255 255
-726.600525 -777.081909 2936.000000 255 255 255
-721.536621 -777.081909 2936.000000 255 255 255
-708.175781 -768.083008 2902.000000 255 255 255
-695.174500 -759.348816 2869.000000 255 255 255
-682.527649 -750.879211 2837.000000 255 255 255
-669.991150 -742.409668 2805.000000 255 255 255
-665.153259 -742.409668 2805.000000 255 255 255
-660.315369 -742.409668 2805.000000 255 255 255
-648.233337 -734.204773 2774.000000 255 255 255
-643.448914 -734.204773 2774.000000 255 255 255
-638.664429 -734.204773 2774.000000 255 255 255
-627.024780 -726.264587 2744.000000 255 255 255
-622.292053 -726.264587 2744.000000 255 255 255
-617.559387 -726.264587 2744.000000 255 255 255
-612.826721 -726.264587 2744.000000 255 255 255
-608.093994 -726.264587 2744.000000 255 255 255
-603.361328 -726.264587 2744.000000 255 255 255
-598.628662 -726.264587 2744.000000 255 255 255
-600.388977 -734.204773 2774.000000 255 255 255
-595.604553 -734.204773 2774.000000 255 255 255
-590.820129 -734.204773 2774.000000 255 255 255
-586.035645 -734.204773 2774.000000 255 255 255
-574.965210 -726.264587 2744.000000 255 255 255
-570.232483 -726.264587 2744.000000 255 255 255
-565.499817 -726.264587 2744.000000 255 255 255
-566.897949 -734.204773 2774.000000 255 255 255
-562.113525 -734.204773 2774.000000 255 255 255
-557.329102 -734.204773 2774.000000 255 255 255
-558.719421 -742.409668 2805.000000 255 255 255
-553.881531 -742.409668 2805.000000 255 255 255
-549.043640 -742.409668 2805.000000 255 255 255
-544.205750 -742.409668 2805.000000 255 255 255
-539.367859 -742.409668 2805.000000 255 255 255
-534.529968 -742.409668 2805.000000 255 255 255
-529.692078 -742.409668 2805.000000 255 255 255
-519.053589 -734.204773 2774.000000 255 255 255
-514.269226 -734.204773 2774.000000 255 255 255
-503.974823 -726.264587 2744.000000 255 255 255
-499.242157 -726.264587 2744.000000 255 255 255
-494.509430 -726.264587 2744.000000 255 255 255
-484.422058 -718.324341 2714.000000 255 255 255
-479.741089 -718.324341 2714.000000 255 255 255
-475.060150 -718.324341 2714.000000 255 255 255
-470.379181 -718.324341 2714.000000 255 255 255
-465.698242 -718.324341 2714.000000 255 255 255
-466.113312 -726.264587 2744.000000 255 255 255
-461.380615 -726.264587 2744.000000 255 255 255
-461.640442 -734.204773 2774.000000 255 255 255
-468.803497 -786.345520 2971.000000 255 255 255
-463.679291 -786.345520 2971.000000 255 255 255
-458.555115 -786.345520 2971.000000 255 255 255
-453.430878 -786.345520 2971.000000 255 255 255
-443.025391 -777.081909 2936.000000 255 255 255
-437.961548 -777.081909 2936.000000 255 255 255
-84.983803 -235.030228 888.000000 255 255 255
-83.452225 -235.030228 888.000000 255 255 255
-81.920654 -235.030228 888.000000 255 255 255
-80.660667 -235.824249 891.000000 255 255 255
-79.123924 -235.824249 891.000000 255 255 255
-77.587181 -235.824249 891.000000 255 255 255
-76.050438 -235.824249 891.000000 255 255 255
-74.513687 -235.824249 891.000000 255 255 255
-72.976944 -235.824249 891.000000 255 255 255
-71.680740 -236.618271 894.000000 255 255 255
-70.138824 -236.618271 894.000000 255 255 255
-68.596901 -236.618271 894.000000 255 255 255
-67.355011 -237.676971 898.000000 255 255 255
-65.806190 -237.676971 898.000000 255 255 255
-64.257370 -237.676971 898.000000 255 255 255
-62.708549 -237.676971 898.000000 255 255 255
-61.159733 -237.676971 898.000000 255 255 255
-59.610912 -237.676971 898.000000 255 255 255
-58.062096 -237.676971 898.000000 255 255 255
-56.513275 -237.676971 898.000000 255 255 255
-54.964462 -237.676971 898.000000 255 255 255
-53.415642 -237.676971 898.000000 255 255 255
-51.635792 -236.618271 894.000000 255 255 255
-50.093876 -236.618271 894.000000 255 255 255
-48.551956 -236.618271 894.000000 255 255 255
-47.010036 -236.618271 894.000000 255 255 255
-4.018628 -176.802017 668.000000 255 255 255
-2.866501 -176.802017 668.000000 255 255 255
-1.714373 -176.802017 668.000000 255 255 255
-0.562246 -176.802017 668.000000 255 255 255
0.591648 -177.331360 670.000000 255 255 255
1.747225 -177.331360 670.000000 255 255 255
2.902802 -177.331360 670.000000 255 255 255
4.046264 -176.802017 668.000000 255 255 255
5.198391 -176.802017 668.000000 255 255 255
6.331505 -176.272675 666.000000 255 255 255
7.457720 -175.743317 664.000000 255 255 255
8.602948 -175.743317 664.000000 255 255 255
9.733496 -175.478653 663.000000 255 255 255
10.844189 -174.949295 661.000000 255 255 255
11.947981 -174.419952 659.000000 255 255 255
13.044876 -173.890610 657.000000 255 255 255
14.156450 -173.625931 656.000000 255 255 255
15.241272 -173.096588 654.000000 255 255 255
16.319195 -172.567245 652.000000 255 255 255
17.416971 -172.302567 651.000000 255 255 255
18.482821 -171.773224 649.000000 255 255 255
19.511566 -170.979202 646.000000 255 255 255
20.625750 -170.979202 646.000000 255 255 255
21.672626 -170.449844 644.000000 255 255 255
22.677227 -169.655823 641.000000 255 255 255
23.708580 -169.126480 639.000000 255 255 255
24.733036 -168.597137 637.000000 255 255 255
25.831696 -168.597137 637.000000 255 255 255
26.803526 -167.803116 634.000000 255 255 255
27.809010 -167.273773 632.000000 255 255 255
28.899044 -167.273773 632.000000 255 255 255
29.941631 -167.009094 631.000000 255 255 255
31.029943 -167.009094 631.000000 255 255 255
32.016453 -166.479752 629.000000 255 255 255
33.048691 -166.215073 628.000000 255 255 255
34.023129 -165.685730 626.000000 255 255 255
35.102818 -165.685730 626.000000 255 255 255
36.124706 -165.421051 625.000000 255 255 255
37.202671 -165.421051 625.000000 255 255 255
38.158134 -164.891708 623.000000 255 255 255
39.169674 -164.627029 622.000000 255 255 255
40.113068 -164.097687 620.000000 255 255 255
41.182407 -164.097687 620.000000 255 255 255
42.115452 -163.568329 618.000000 255 255 255
43.181343 -163.568329 618.000000 255 255 255
44.247234 -163.568329 618.000000 255 255 255
45.459766 -164.097687 620.000000 255 255 255
46.529102 -164.097687 620.000000 255 255 255
47.751987 -164.627029 622.000000 255 255 255
48.903275 -164.891708 623.000000 255 255 255
50.138229 -165.421051 625.000000 255 255 255
51.216194 -165.421051 625.000000 255 255 255
52.294159 -165.421051 625.000000 255 255 255
53.457520 -165.685730 626.000000 255 255 255
54.537205 -165.685730 626.000000 255 255 255
55.616894 -165.685730 626.000000 255 255 255
56.696583 -165.685730 626.000000 255 255 255
57.960857 -166.215073 628.000000 255 255 255
59.138016 -166.479752 629.000000 255 255 255
60.222878 -166.479752 629.000000 255 255 255
61.307739 -166.479752 629.000000 255 255 255
62.590988 -167.009094 631.000000 255 255 255
63.679302 -167.009094 631.000000 255 255 255
64.870255 -167.273773 632.000000 255 255 255
65.960297 -167.273773 632.000000 255 255 255
67.050331 -167.273773 632.000000 255 255 255
68.356003 -167.803116 634.000000 255 255 255
69.449486 -167.803116 634.000000 255 255 255
70.542969 -167.803116 634.000000 255 255 255
71.636459 -167.803116 634.000000 255 255 255
72.729942 -167.803116 634.000000 255 255 255
73.823433 -167.803116 634.000000 255 255 255
74.680588 -167.273773 632.000000 255 255 255
75.770622 -167.273773 632.000000 255 255 255
76.739044 -167.009094 631.000000 255 255 255
77.827362 -167.009094 631.000000 255 255 255
78.665535 -166.479752 629.000000 255 255 255
79.750404 -166.479752 629.000000 255 255 255
80.706749 -166.215073 628.000000 255 255 255
81.529411 -165.685730 626.000000 255 255 255
82.609100 -165.685730 626.000000 255 255 255
83.555107 -165.421051 625.000000 255 255 255
84.362236 -164.891708 623.000000 255 255 255
85.299606 -164.627029 622.000000 255 255 255
86.094681 -164.097687 620.000000 255 255 255
87.164017 -164.097687 620.000000 255 255 255
87.948738 -163.568329 618.000000 255 255 255
89.014626 -163.568329 618.000000 255 255 255
89.934753 -163.303665 617.000000 255 255 255
90.998917 -163.303665 617.000000 255 255 255
91.764664 -162.774307 615.000000 255 255 255
92.674446 -162.509644 614.000000 255 255 255
93.733429 -162.509644 614.000000 255 255 255
94.483658 -161.980286 612.000000 255 255 255
95.539192 -161.980286 612.000000 255 255 255
96.436905 -161.715622 611.000000 255 255 255
97.171600 -161.186264 609.000000 255 255 255
98.221977 -161.186264 609.000000 255 255 255
99.109329 -160.921600 608.000000 255 255 255
100.157974 -160.921600 608.000000 255 255 255
100.873695 -160.392258 606.000000 255 255 255
101.918900 -160.392258 606.000000 255 255 255
102.964088 -160.392258 606.000000 255 255 255
103.837646 -160.127579 605.000000 255 255 255
104.881119 -160.127579 605.000000 255 255 255
105.749496 -159.862900 604.000000 255 255 255
106.791252 -159.862900 604.000000 255 255 255
107.832985 -159.862900 604.000000 255 255 255
108.514229 -159.333557 602.000000 255 255 255
109.552513 -159.333557 602.000000 255 255 255
110.590813 -159.333557 602.000000 255 255 255
111.443672 -159.068878 601.000000 255 255 255
112.480240 -159.068878 601.000000 255 255 255
113.139053 -158.539536 599.000000 255 255 255
114.172173 -158.539536 599.000000 255 255 255
115.205299 -158.539536 599.000000 255 255 255
116.238411 -158.539536 599.000000 255 255 255
117.271538 -158.539536 599.000000 255 255 255
118.107147 -158.274857 598.000000 255 255 255
119.138550 -158.274857 598.000000 255 255 255
120.169945 -158.274857 598.000000 255 255 255
120.795975 -157.745514 596.000000 255 255 255
121.823929 -157.745514 596.000000 255 255 255
122.851868 -157.745514 596.000000 255 255 255
123.879822 -157.745514 596.000000 255 255 255
124.907761 -157.745514 596.000000 255 255 255
125.935715 -157.745514 596.000000 255 255 255
126.963654 -157.745514 596.000000 255 255 255
127.776855 -157.480835 595.000000 255 255 255
128.803070 -157.480835 595.000000 255 255 255
129.829300 -157.480835 595.000000 255 255 255
130.855515 -157.480835 595.000000 255 255 255
131.881729 -157.480835 595.000000 255 255 255
132.684586 -157.216171 594.000000 255 255 255
133.709076 -157.216171 594.000000 255 255 255
134.733582 -157.216171 594.000000 255 255 255
135.758072 -157.216171 594.000000 255 255 255
136.782578 -157.216171 594.000000 255 255 255
137.807068 -157.216171 594.000000 255 255 255
138.831573 -157.216171 594.000000 255 255 255
139.856064 -157.216171 594.000000 255 255 255
140.880554 -157.216171 594.000000 255 255 255
141.905060 -157.216171 594.000000 255 255 255
142.448303 -156.686813 592.000000 255 255 255
143.469360 -156.686813 592.000000 255 255 255
144.490402 -156.686813 592.000000 255 255 255
145.511444 -156.686813 592.000000 255 255 255
146.532486 -156.686813 592.000000 255 255 255
147.553543 -156.686813 592.000000 255 255 255
148.574600 -156.686813 592.000000 255 255 255
149.595627 -156.686813 592.000000 255 255 255
150.616684 -156.686813 592.000000 255 255 255
151.637741 -156.686813 592.000000 255 255 255
152.658768 -156.686813 592.000000 255 255 255
153.679825 -156.686813 592.000000 255 255 255
154.700867 -156.686813 592.000000 255 255 255
155.721924 -156.686813 592.000000 255 255 255
156.742966 -156.686813 592.000000 255 255 255
157.764008 -156.686813 592.000000 255 255 255
158.785065 -156.686813 592.000000 255 255 255
159.806122 -156.686813 592.000000 255 255 255
160.827148 -156.686813 592.000000 255 255 255
161.848206 -156.686813 592.000000 255 255 255
162.869247 -156.686813 592.000000 255 255 255
163.890289 -156.686813 592.000000 255 255 255
164.911331 -156.686813 592.000000 255 255 255
165.652100 -156.422150 591.000000 255 255 255
166.671432 -156.422150 591.000000 255 255 255
167.690735 -156.422150 591.000000 255 255 255
168.139130 -155.892792 589.000000 255 255 255
169.155014 -155.892792 589.000000 255 255 255
170.170868 -155.892792 589.000000 255 255 255
171.186752 -155.892792 589.000000 255 255 255
172.202621 -155.892792 589.000000 255 255 255
173.218506 -155.892792 589.000000 255 255 255
174.234360 -155.892792 589.000000 255 255 255
175.845322 -156.422150 591.000000 255 255 255
177.163910 -156.686813 592.000000 255 255 255
178.786942 -157.216171 594.000000 255 255 255
180.114136 -157.480835 595.000000 255 255 255
181.140366 -157.480835 595.000000 255 255 255
182.166580 -157.480835 595.000000 255 255 255
183.500687 -157.745514 596.000000 255 255 255
184.528625 -157.745514 596.000000 255 255 255
221.246506 -144.776505 547.000000 255 255 255
222.189941 -144.776505 547.000000 255 255 255
223.541290 -145.041183 548.000000 255 255 255
224.486450 -145.041183 548.000000 255 255 255
225.431610 -145.041183 548.000000 255 255 255
226.376770 -145.041183 548.000000 255 255 255
227.321930 -145.041183 548.000000 255 255 255
228.267090 -145.041183 548.000000 255 255 255
229.630524 -145.305847 549.000000 255 255 255
230.577408 -145.305847 549.000000 255 255 255
231.524277 -145.305847 549.000000 255 255 255
232.894608 -145.570526 550.000000 255 255 255
233.843231 -145.570526 550.000000 255 255 255
234.791824 -145.570526 550.000000 255 255 255
236.597672 -146.099869 552.000000 255 255 255
237.980072 -146.364548 553.000000 255 255 255
238.933868 -146.364548 553.000000 255 255 255
239.887634 -146.364548 553.000000 255 255 255
1748.447510 -984.586060 3720.000000 255 255 255
1754.863525 -984.586060 3720.000000 255 255 255
1761.279541 -984.586060 3720.000000 255 255 255
1767.695679 -984.586060 3720.000000 255 255 255
1774.111572 -984.586060 3720.000000 255 255 255
1780.527710 -984.586060 3720.000000 255 255 255
1761.004272 -970.293701 3666.000000 255 255 255
1767.327148 -970.293701 3666.000000 255 255 255
1782.946411 -916.564941 3463.000000 255 255 255
1788.919434 -916.564941 3463.000000 255 255 255
1794.892090 -916.564941 3463.000000 255 255 255
1800.864746 -916.564941 3463.000000 255 255 255
1806.837646 -916.564941 3463.000000 255 255 255
1788.206909 -904.125305 3416.000000 255 255 255
1794.098511 -904.125305 3416.000000 255 255 255
1799.990356 -904.125305 3416.000000 255 255 255
1830.728760 -916.564941 3463.000000 255 255 255
1836.701416 -916.564941 3463.000000 255 255 255
1842.674316 -916.564941 3463.000000 255 255 255
1848.647095 -916.564941 3463.000000 255 255 255
-868.388062 -772.018066 2936.000000 255 255 255
-863.324158 -772.018066 2936.000000 255 255 255
-858.260376 -772.018066 2936.000000 255 255 255
-853.196533 -772.018066 2936.000000 255 255 255
-848.132690 -772.018066 2936.000000 255 255 255
-833.305847 -763.077820 2902.000000 255 255 255
-828.300598 -763.077820 2902.000000 255 255 255
-823.295410 -763.077820 2902.000000 255 255 255
-808.984985 -754.400452 2869.000000 255 255 255
-804.036804 -754.400452 2869.000000 255 255 255
-799.088440 -754.400452 2869.000000 255 255 255
-794.140137 -754.400452 2869.000000 255 255 255
-798.269409 -763.077820 2902.000000 255 255 255
-793.264221 -763.077820 2902.000000 255 255 255
-779.295349 -754.400452 2869.000000 255 255 255
-774.347046 -754.400452 2869.000000 255 255 255
-778.248596 -763.077820 2902.000000 255 255 255
-773.243408 -763.077820 2902.000000 255 255 255
-768.238159 -763.077820 2902.000000 255 255 255
-763.232971 -763.077820 2902.000000 255 255 255
-758.227844 -763.077820 2902.000000 255 255 255
-753.222595 -763.077820 2902.000000 255 255 255
-748.217346 -763.077820 2902.000000 255 255 255
-743.212219 -763.077820 2902.000000 255 255 255
-738.207031 -763.077820 2902.000000 255 255 255
-733.201782 -763.077820 2902.000000 255 255 255
-728.196533 -763.077820 2902.000000 255 255 255
-731.664307 -772.018066 2936.000000 255 255 255
-718.186218 -763.077820 2902.000000 255 255 255
-713.180969 -763.077820 2902.000000 255 255 255
-708.175781 -763.077820 2902.000000 255 255 255
-695.174500 -754.400452 2869.000000 255 255 255
-682.527649 -745.986145 2837.000000 255 255 255
-677.634583 -745.986145 2837.000000 255 255 255
-665.153259 -737.571777 2805.000000 255 255 255
-660.315369 -737.571777 2805.000000 255 255 255
-655.477417 -737.571777 2805.000000 255 255 255
-643.448914 -729.420349 2774.000000 255 255 255
-638.664429 -729.420349 2774.000000 255 255 255
-633.880005 -729.420349 2774.000000 255 255 255
-629.095581 -729.420349 2774.000000 255 255 255
-624.311157 -729.420349 2774.000000 255 255 255
-619.526733 -729.420349 2774.000000 255 255 255
-614.742310 -729.420349 2774.000000 255 255 255
-609.957886 -729.420349 2774.000000 255 255 255
-605.173401 -729.420349 2774.000000 255 255 255
-600.388977 -729.420349 2774.000000 255 255 255
-595.604553 -729.420349 2774.000000 255 255 255
-590.820129 -729.420349 2774.000000 255 255 255
-586.035645 -729.420349 2774.000000 255 255 255
-581.251282 -729.420349 2774.000000 255 255 255
-570.232483 -721.531860 2744.000000 255 255 255
-565.499817 -721.531860 2744.000000 255 255 255
-566.897949 -729.420349 2774.000000 255 255 255
-562.113525 -729.420349 2774.000000 255 255 255
-563.557373 -737.571777 2805.000000 255 255 255
-558.719421 -737.571777 2805.000000 255 255 255
-553.881531 -737.571777 2805.000000 255 255 255
-549.043640 -737.571777 2805.000000 255 255 255
-544.205750 -737.571777 2805.000000 255 255 255
-539.367859 -737.571777 2805.000000 255 255 255
-540.627991 -745.986145 2837.000000 255 255 255
-529.692078 -737.571777 2805.000000 255 255 255
-524.854126 -737.571777 2805.000000 255 255 255
-514.269226 -729.420349 2774.000000 255 255 255
-503.974823 -721.531860 2744.000000 255 255 255
-499.242157 -721.531860 2744.000000 255 255 255
-489.102997 -713.643372 2714.000000 255 255 255
-484.422058 -713.643372 2714.000000 255 255 255
-479.741089 -713.643372 2714.000000 255 255 255
-475.060150 -713.643372 2714.000000 255 255 255
-470.379181 -713.643372 2714.000000 255 255 255
-465.698242 -713.643372 2714.000000 255 255 255
-466.113312 -721.531860 2744.000000 255 255 255
-461.380615 -721.531860 2744.000000 255 255 255
-461.640442 -729.420349 2774.000000 255 255 255
-474.484039 -790.687439 3007.000000 255 255 255
-463.679291 -781.221252 2971.000000 255 255 255
-458.555115 -781.221252 2971.000000 255 255 255
-453.430878 -781.221252 2971.000000 255 255 255
-448.306702 -781.221252 2971.000000 255 255 255
-443.182465 -781.221252 2971.000000 255 255 255
-85.270905 -234.287491 891.000000 255 255 255
-83.734161 -234.287491 891.000000 255 255 255
-82.197418 -234.287491 891.000000 255 255 255
-80.660667 -234.287491 891.000000 255 255 255
-79.123924 -234.287491 891.000000 255 255 255
-77.587181 -234.287491 891.000000 255 255 255
-76.050438 -234.287491 891.000000 255 255 255
-74.513687 -234.287491 891.000000 255 255 255
-72.976944 -234.287491 891.000000 255 255 255
-71.680740 -235.076340 894.000000 255 255 255
-70.138824 -235.076340 894.000000 255 255 255
-68.903824 -236.128143 898.000000 255 255 255
-67.355011 -236.128143 898.000000 255 255 255
-65.806190 -236.128143 898.000000 255 255 255
-64.257370 -236.128143 898.000000 255 255 255
-62.708549 -236.128143 898.000000 255 255 255
-61.159733 -236.128143 898.000000 255 255 255
-59.610912 -236.128143 898.000000 255 255 255
-58.062096 -236.128143 898.000000 255 255 255
-56.513275 -236.128143 898.000000 255 255 255
-54.964462 -236.128143 898.000000 255 255 255
-53.415642 -236.128143 898.000000 255 255 255
-51.866825 -236.128143 898.000000 255 255 255
-50.093876 -235.076340 894.000000 255 255 255
-48.551956 -235.076340 894.000000 255 255 255
-47.010036 -235.076340 894.000000 255 255 255
-4.018628 -175.649887 668.000000 255 255 255
-2.866501 -175.649887 668.000000 255 255 255
-1.714373 -175.649887 668.000000 255 255 255
-0.562246 -175.649887 668.000000 255 255 255
0.591648 -176.175781 670.000000 255 255 255
1.747225 -176.175781 670.000000 255 255 255
2.902802 -176.175781 670.000000 255 255 255
4.058378 -176.175781 670.000000 255 255 255
5.198391 -175.649887 668.000000 255 255 255
6.331505 -175.123993 666.000000 255 255 255
7.457720 -174.598083 664.000000 255 255 255
8.602948 -174.598083 664.000000 255 255 255
9.733496 -174.335144 663.000000 255 255 255
10.844189 -173.809250 661.000000 255 255 255
11.947981 -173.283340 659.000000 255 255 255
13.044876 -172.757446 657.000000 255 255 255
14.156450 -172.494492 656.000000 255 255 255
15.241272 -171.968597 654.000000 255 255 255
16.319195 -171.442703 652.000000 255 255 255
17.416971 -171.179749 651.000000 255 255 255
18.482821 -170.653854 649.000000 255 255 255
19.511566 -169.865005 646.000000 255 255 255
20.625750 -169.865005 646.000000 255 255 255
21.672626 -169.339111 644.000000 255 255 255
22.677227 -168.550262 641.000000 255 255 255
23.708580 -168.024368 639.000000 255 255 255
24.733036 -167.498474 637.000000 255 255 255
25.831696 -167.498474 637.000000 255 255 255
26.803526 -166.709625 634.000000 255 255 255
27.897013 -166.709625 634.000000 255 255 255
28.899044 -166.183731 632.000000 255 255 255
29.941631 -165.920776 631.000000 255 255 255
31.029943 -165.920776 631.000000 255 255 255
32.016453 -165.394882 629.000000 255 255 255
33.048691 -165.131927 628.000000 255 255 255
34.023129 -164.606033 626.000000 255 255 255
35.102818 -164.606033 626.000000 255 255 255
36.124706 -164.343079 625.000000 255 255 255
37.202671 -164.343079 625.000000 255 255 255
38.158134 -163.817184 623.000000 255 255 255
39.169674 -163.554230 622.000000 255 255 255
40.113068 -163.028336 620.000000 255 255 255
41.182407 -163.028336 620.000000 255 255 255
42.115452 -162.502441 618.000000 255 255 255
43.181343 -162.502441 618.000000 255 255 255
44.247234 -162.502441 618.000000 255 255 255
45.459766 -163.028336 620.000000 255 255 255
46.529102 -163.028336 620.000000 255 255 255
47.751987 -163.554230 622.000000 255 255 255
48.903275 -163.817184 623.000000 255 255 255
50.138229 -164.343079 625.000000 255 255 255
51.216194 -164.343079 625.000000 255 255 255
52.377831 -164.606033 626.000000 255 255 255
53.457520 -164.606033 626.000000 255 255 255
54.537205 -164.606033 626.000000 255 255 255
55.794586 -165.131927 628.000000 255 255 255
56.877724 -165.131927 628.000000 255 255 255
57.960857 -165.131927 628.000000 255 255 255
59.138016 -165.394882 629.000000 255 255 255
60.222878 -165.394882 629.000000 255 255 255
61.307739 -165.394882 629.000000 255 255 255
62.590988 -165.920776 631.000000 255 255 255
63.679302 -165.920776 631.000000 255 255 255
64.870255 -166.183731 632.000000 255 255 255
65.960297 -166.183731 632.000000 255 255 255
67.262512 -166.709625 634.000000 255 255 255
68.356003 -166.709625 634.000000 255 255 255
69.449486 -166.709625 634.000000 255 255 255
70.542969 -166.709625 634.000000 255 255 255
71.636459 -166.709625 634.000000 255 255 255
72.729942 -166.709625 634.000000 255 255 255
73.823433 -166.709625 634.000000 255 255 255
74.680588 -166.183731 632.000000 255 255 255
75.770622 -166.183731 632.000000 255 255 255
76.739044 -165.920776 631.000000 255 255 255
77.827362 -165.920776 631.000000 255 255 255
78.915665 -165.920776 631.000000 255 255 255
79.750404 -165.394882 629.000000 255 255 255
80.706749 -165.131927 628.000000 255 255 255
81.529411 -164.606033 626.000000 255 255 255
82.609100 -164.606033 626.000000 255 255 255
83.555107 -164.343079 625.000000 255 255 255
84.633064 -164.343079 625.000000 255 255 255
85.436745 -163.817184 623.000000 255 255 255
86.372406 -163.554230 622.000000 255 255 255
87.164017 -163.028336 620.000000 255 255 255
88.233360 -163.028336 620.000000 255 255 255
89.014626 -162.502441 618.000000 255 255 255
90.080521 -162.502441 618.000000 255 255 255
90.998917 -162.239487 617.000000 255 255 255
92.063087 -162.239487 617.000000 255 255 255
92.825378 -161.713593 615.000000 255 255 255
93.733429 -161.450638 614.000000 255 255 255
94.792427 -161.450638 614.000000 255 255 255
95.539192 -160.924744 612.000000 255 255 255
96.436905 -160.661789 611.000000 255 255 255
97.171600 -160.135895 609.000000 255 255 255
98.221977 -160.135895 609.000000 255 255 255
99.109329 -159.872955 608.000000 255 255 255
100.157974 -159.872955 608.000000 255 255 255
100.873695 -159.347046 606.000000 255 255 255
101.918900 -159.347046 606.000000 255 255 255
102.964088 -159.347046 606.000000 255 255 255
103.837646 -159.084106 605.000000 255 255 255
104.881119 -159.084106 605.000000 255 255 255
105.749496 -158.821152 604.000000 255 255 255
106.791252 -158.821152 604.000000 255 255 255
107.832985 -158.821152 604.000000 255 255 255
108.874741 -158.821152 604.000000 255 255 255
109.552513 -158.295258 602.000000 255 255 255
110.590813 -158.295258 602.000000 255 255 255
111.443672 -158.032303 601.000000 255 255 255
112.480240 -158.032303 601.000000 255 255 255
113.516815 -158.032303 601.000000 255 255 255
114.172173 -157.506409 599.000000 255 255 255
115.205299 -157.506409 599.000000 255 255 255
116.238411 -157.506409 599.000000 255 255 255
117.271538 -157.506409 599.000000 255 255 255
118.304657 -157.506409 599.000000 255 255 255
119.138550 -157.243454 598.000000 255 255 255
120.169945 -157.243454 598.000000 255 255 255
121.201332 -157.243454 598.000000 255 255 255
121.823929 -156.717560 596.000000 255 255 255
122.851868 -156.717560 596.000000 255 255 255
123.879822 -156.717560 596.000000 255 255 255
124.907761 -156.717560 596.000000 255 255 255
125.935715 -156.717560 596.000000 255 255 255
126.963654 -156.717560 596.000000 255 255 255
127.991608 -156.717560 596.000000 255 255 255
128.803070 -156.454620 595.000000 255 255 255
129.829300 -156.454620 595.000000 255 255 255
130.855515 -156.454620 595.000000 255 255 255
131.881729 -156.454620 595.000000 255 255 255
132.907959 -156.454620 595.000000 255 255 255
133.934174 -156.454620 595.000000 255 255 255
134.960403 -156.454620 595.000000 255 255 255
135.986618 -156.454620 595.000000 255 255 255
136.782578 -156.191666 594.000000 255 255 255
137.807068 -156.191666 594.000000 255 255 255
138.831573 -156.191666 594.000000 255 255 255
139.856064 -156.191666 594.000000 255 255 255
140.880554 -156.191666 594.000000 255 255 255
141.905060 -156.191666 594.000000 255 255 255
142.929550 -156.191666 594.000000 255 255 255
143.954056 -156.191666 594.000000 255 255 255
144.490402 -155.665771 592.000000 255 255 255
145.511444 -155.665771 592.000000 255 255 255
146.532486 -155.665771 592.000000 255 255 255
147.553543 -155.665771 592.000000 255 255 255
148.574600 -155.665771 592.000000 255 255 255
149.595627 -155.665771 592.000000 255 255 255
150.616684 -155.665771 592.000000 255 255 255
151.637741 -155.665771 592.000000 255 255 255
152.658768 -155.665771 592.000000 255 255 255
153.679825 -155.665771 592.000000 255 255 255
154.700867 -155.665771 592.000000 255 255 255
156.248016 -156.191666 594.000000 255 255 255
157.272491 -156.191666 594.000000 255 255 255
158.296997 -156.191666 594.000000 255 255 255
159.321503 -156.191666 594.000000 255 255 255
160.345993 -156.191666 594.000000 255 255 255
160.827148 -155.665771 592.000000 255 255 255
161.848206 -155.665771 592.000000 255 255 255
162.869247 -155.665771 592.000000 255 255 255
163.890289 -155.665771 592.000000 255 255 255
164.911331 -155.665771 592.000000 255 255 255
165.932388 -155.665771 592.000000 255 255 255
166.671432 -155.402817 591.000000 255 255 255
167.690735 -155.402817 591.000000 255 255 255
168.710068 -155.402817 591.000000 255 255 255
169.155014 -154.876923 589.000000 255 255 255
170.170868 -154.876923 589.000000 255 255 255
171.186752 -154.876923 589.000000 255 255 255
172.202621 -154.876923 589.000000 255 255 255
173.218506 -154.876923 589.000000 255 255 255
174.825989 -155.402817 591.000000 255 255 255
175.845322 -155.402817 591.000000 255 255 255
177.762436 -156.191666 594.000000 255 255 255
179.087921 -156.454620 595.000000 255 255 255
180.114136 -156.454620 595.000000 255 255 255
181.140366 -156.454620 595.000000 255 255 255
182.472748 -156.717560 596.000000 255 255 255
183.500687 -156.717560 596.000000 255 255 255
184.528625 -156.717560 596.000000 255 255 255
221.246506 -143.833069 547.000000 255 255 255
222.596146 -144.096008 548.000000 255 255 255
223.541290 -144.096008 548.000000 255 255 255
224.486450 -144.096008 548.000000 255 255 255
225.431610 -144.096008 548.000000 255 255 255
226.376770 -144.096008 548.000000 255 255 255
227.736740 -144.358963 549.000000 255 255 255
228.683640 -144.358963 549.000000 255 255 255
229.630524 -144.358963 549.000000 255 255 255
230.577408 -144.358963 549.000000 255 255 255
231.945999 -144.621918 550.000000 255 255 255
232.894608 -144.621918 550.000000 255 255 255
233.843231 -144.621918 550.000000 255 255 255
235.645615 -145.147812 552.000000 255 255 255
236.597672 -145.147812 552.000000 255 255 255
237.549728 -145.147812 552.000000 255 255 255
238.933868 -145.410751 553.000000 255 255 255
239.887634 -145.410751 553.000000 255 255 255
1802.029053 -1008.146179 3834.000000 255 255 255
1754.863525 -978.170044 3720.000000 255 255 255
1761.279541 -978.170044 3720.000000 255 255 255
1767.695679 -978.170044 3720.000000 255 255 255
1774.111572 -978.170044 3720.000000 255 255 255
1754.681274 -963.970764 3666.000000 255 255 255
1761.004272 -963.970764 3666.000000 255 255 255
1767.327148 -963.970764 3666.000000 255 255 255
1782.946411 -910.592163 3463.000000 255 255 255
1788.919434 -910.592163 3463.000000 255 255 255
1794.892090 -910.592163 3463.000000 255 255 255
1800.864746 -910.592163 3463.000000 255 255 255
1806.837646 -910.592163 3463.000000 255 255 255
1812.810425 -910.592163 3463.000000 255 255 255
1794.098511 -898.233521 3416.000000 255 255 255
1799.990356 -898.233521 3416.000000 255 255 255
1830.728760 -910.592163 3463.000000 255 255 255
1836.701416 -910.592163 3463.000000 255 255 255
1842.674316 -910.592163 3463.000000 255 255 255
1848.647095 -910.592163 3463.000000 255 255 255
-868.342224 -758.072571 2902.000000 255 255 255
-873.451904 -766.954224 2936.000000 255 255 255
-858.331787 -758.072571 2902.000000 255 255 255
-853.326538 -758.072571 2902.000000 255 255 255
-848.321411 -758.072571 2902.000000 255 255 255
-843.316162 -758.072571 2902.000000 255 255 255
-838.310974 -758.072571 2902.000000 255 255 255
-823.829895 -749.452148 2869.000000 255 255 255
-818.881592 -749.452148 2869.000000 255 255 255
-813.933289 -749.452148 2869.000000 255 255 255
-808.984985 -749.452148 2869.000000 255 255 255
-804.036804 -749.452148 2869.000000 255 255 255
-799.088440 -749.452148 2869.000000 255 255 255
-794.140137 -749.452148 2869.000000 255 255 255
-789.191956 -749.452148 2869.000000 255 255 255
-784.243652 -749.452148 2869.000000 255 255 255
-779.295349 -749.452148 2869.000000 255 255 255
-774.347046 -749.452148 2869.000000 255 255 255
-769.398804 -749.452148 2869.000000 255 255 255
-764.450500 -749.452148 2869.000000 255 255 255
-759.502197 -749.452148 2869.000000 255 255 255
-754.553894 -749.452148 2869.000000 255 255 255
-749.605652 -749.452148 2869.000000 255 255 255
-744.657349 -749.452148 2869.000000 255 255 255
-739.709045 -749.452148 2869.000000 255 255 255
-743.212219 -758.072571 2902.000000 255 255 255
-738.207031 -758.072571 2902.000000 255 255 255
-733.201782 -758.072571 2902.000000 255 255 255
-728.196533 -758.072571 2902.000000 255 255 255
-723.191406 -758.072571 2902.000000 255 255 255
-718.186218 -758.072571 2902.000000 255 255 255
-713.180969 -758.072571 2902.000000 255 255 255
-708.175781 -758.072571 2902.000000 255 255 255
-695.174500 -749.452148 2869.000000 255 255 255
-682.527649 -741.093018 2837.000000 255 255 255
-677.634583 -741.093018 2837.000000 255 255 255
-672.741455 -741.093018 2837.000000 255 255 255
-660.315369 -732.733826 2805.000000 255 255 255
-655.477417 -732.733826 2805.000000 255 255 255
-650.639587 -732.733826 2805.000000 255 255 255
-645.801636 -732.733826 2805.000000 255 255 255
-633.880005 -724.635864 2774.000000 255 255 255
-629.095581 -724.635864 2774.000000 255 255 255
-624.311157 -724.635864 2774.000000 255 255 255
-619.526733 -724.635864 2774.000000 255 255 255
-614.742310 -724.635864 2774.000000 255 255 255
-609.957886 -724.635864 2774.000000 255 255 255
-605.173401 -724.635864 2774.000000 255 255 255
-600.388977 -724.635864 2774.000000 255 255 255
-602.260559 -732.733826 2805.000000 255 255 255
-597.422668 -732.733826 2805.000000 255 255 255
-586.035645 -724.635864 2774.000000 255 255 255
-571.682373 -724.635864 2774.000000 255 255 255
-566.897949 -724.635864 2774.000000 255 255 255
-568.395264 -732.733826 2805.000000 255 255 255
-563.557373 -732.733826 2805.000000 255 255 255
-558.719421 -732.733826 2805.000000 255 255 255
-560.200378 -741.093018 2837.000000 255 255 255
-549.043640 -732.733826 2805.000000 255 255 255
-550.414185 -741.093018 2837.000000 255 255 255
-545.521057 -741.093018 2837.000000 255 255 255
-540.627991 -741.093018 2837.000000 255 255 255
-535.734924 -741.093018 2837.000000 255 255 255
-524.854126 -732.733826 2805.000000 255 255 255
-520.016235 -732.733826 2805.000000 255 255 255
-503.974823 -716.799133 2744.000000 255 255 255
-499.242157 -716.799133 2744.000000 255 255 255
-494.509430 -716.799133 2744.000000 255 255 255
-484.422058 -708.962402 2714.000000 255 255 255
-479.741089 -708.962402 2714.000000 255 255 255
-475.060150 -708.962402 2714.000000 255 255 255
-470.379181 -708.962402 2714.000000 255 255 255
-470.845978 -716.799133 2744.000000 255 255 255
-466.113312 -716.799133 2744.000000 255 255 255
-461.380615 -716.799133 2744.000000 255 255 255
-461.640442 -724.635864 2774.000000 255 255 255
-73.222656 -233.534424 894.000000 255 255 255
-71.680740 -233.534424 894.000000 255 255 255
-70.138824 -233.534424 894.000000 255 255 255
-68.903824 -234.579315 898.000000 255 255 255
-67.355011 -234.579315 898.000000 255 255 255
-65.806190 -234.579315 898.000000 255 255 255
-64.472038 -235.362991 901.000000 255 255 255
-62.918045 -235.362991 901.000000 255 255 255
-61.364052 -235.362991 901.000000 255 255 255
-59.810059 -235.362991 901.000000 255 255 255
-58.062096 -234.579315 898.000000 255 255 255
-56.513275 -234.579315 898.000000 255 255 255
-1.719506 -175.020203 670.000000 255 255 255
-0.563929 -175.020203 670.000000 255 255 255
0.592531 -175.281418 671.000000 255 255 255
1.749832 -175.281418 671.000000 255 255 255
2.902802 -175.020203 670.000000 255 255 255
4.058378 -175.020203 670.000000 255 255 255
5.198391 -174.497757 668.000000 255 255 255
6.331505 -173.975311 666.000000 255 255 255
7.457720 -173.452850 664.000000 255 255 255
8.602948 -173.452850 664.000000 255 255 255
9.733496 -173.191635 663.000000 255 255 255
10.844189 -172.669189 661.000000 255 255 255
11.947981 -172.146729 659.000000 255 255 255
13.044876 -171.624283 657.000000 255 255 255
14.156450 -171.363068 656.000000 255 255 255
15.241272 -170.840607 654.000000 255 255 255
16.319195 -170.318161 652.000000 255 255 255
17.416971 -170.056946 651.000000 255 255 255
18.482821 -169.534500 649.000000 255 255 255
19.511566 -168.750824 646.000000 255 255 255
20.625750 -168.750824 646.000000 255 255 255
21.672626 -168.228378 644.000000 255 255 255
22.677227 -167.444702 641.000000 255 255 255
23.708580 -166.922256 639.000000 255 255 255
24.733036 -166.399796 637.000000 255 255 255
25.831696 -166.399796 637.000000 255 255 255
26.888081 -166.138580 636.000000 255 255 255
27.897013 -165.616135 634.000000 255 255 255
28.899044 -165.093689 632.000000 255 255 255
29.941631 -164.832458 631.000000 255 255 255
31.029943 -164.832458 631.000000 255 255 255
32.016453 -164.310013 629.000000 255 255 255
33.048691 -164.048782 628.000000 255 255 255
34.023129 -163.526337 626.000000 255 255 255
35.102818 -163.526337 626.000000 255 255 255
36.124706 -163.265106 625.000000 255 255 255
37.202671 -163.265106 625.000000 255 255 255
38.158134 -162.742661 623.000000 255 255 255
39.169674 -162.481445 622.000000 255 255 255
40.113068 -161.958984 620.000000 255 255 255
41.182407 -161.958984 620.000000 255 255 255
42.115452 -161.436539 618.000000 255 255 255
43.181343 -161.436539 618.000000 255 255 255
44.247234 -161.436539 618.000000 255 255 255
45.459766 -161.958984 620.000000 255 255 255
46.529102 -161.958984 620.000000 255 255 255
47.751987 -162.481445 622.000000 255 255 255
48.903275 -162.742661 623.000000 255 255 255
50.138229 -163.265106 625.000000 255 255 255
51.216194 -163.265106 625.000000 255 255 255
52.377831 -163.526337 626.000000 255 255 255
53.457520 -163.526337 626.000000 255 255 255
54.711445 -164.048782 628.000000 255 255 255
55.794586 -164.048782 628.000000 255 255 255
56.877724 -164.048782 628.000000 255 255 255
58.053150 -164.310013 629.000000 255 255 255
59.138016 -164.310013 629.000000 255 255 255
60.222878 -164.310013 629.000000 255 255 255
61.502678 -164.832458 631.000000 255 255 255
62.590988 -164.832458 631.000000 255 255 255
63.679302 -164.832458 631.000000 255 255 255
64.870255 -165.093689 632.000000 255 255 255
65.960297 -165.093689 632.000000 255 255 255
67.262512 -165.616135 634.000000 255 255 255
68.571640 -166.138580 636.000000 255 255 255
69.668571 -166.138580 636.000000 255 255 255
70.765503 -166.138580 636.000000 255 255 255
71.862442 -166.138580 636.000000 255 255 255
72.959373 -166.138580 636.000000 255 255 255
74.056313 -166.138580 636.000000 255 255 255
74.916916 -165.616135 634.000000 255 255 255
75.770622 -165.093689 632.000000 255 255 255
76.739044 -164.832458 631.000000 255 255 255
77.827362 -164.832458 631.000000 255 255 255
78.915665 -164.832458 631.000000 255 255 255
79.750404 -164.310013 629.000000 255 255 255
80.706749 -164.048782 628.000000 255 255 255
81.789894 -164.048782 628.000000 255 255 255
82.609100 -163.526337 626.000000 255 255 255
83.688789 -163.526337 626.000000 255 255 255
84.633064 -163.265106 625.000000 255 255 255
85.436745 -162.742661 623.000000 255 255 255
86.372406 -162.481445 622.000000 255 255 255
87.164017 -161.958984 620.000000 255 255 255
88.233360 -161.958984 620.000000 255 255 255
89.014626 -161.436539 618.000000 255 255 255
90.080521 -161.436539 618.000000 255 255 255
90.998917 -161.175323 617.000000 255 255 255
92.063087 -161.175323 617.000000 255 255 255
92.825378 -160.652878 615.000000 255 255 255
93.733429 -160.391647 614.000000 255 255 255
94.792427 -160.391647 614.000000 255 255 255
95.539192 -159.869202 612.000000 255 255 255
96.436905 -159.607971 611.000000 255 255 255
97.490723 -159.607971 611.000000 255 255 255
98.221977 -159.085526 609.000000 255 255 255
99.272339 -159.085526 609.000000 255 255 255
100.157974 -158.824295 608.000000 255 255 255
101.206619 -158.824295 608.000000 255 255 255
101.918900 -158.301849 606.000000 255 255 255
102.964088 -158.301849 606.000000 255 255 255
103.837646 -158.040634 605.000000 255 255 255
104.881119 -158.040634 605.000000 255 255 255
105.924583 -158.040634 605.000000 255 255 255
106.791252 -157.779404 604.000000 255 255 255
107.832985 -157.779404 604.000000 255 255 255
108.874741 -157.779404 604.000000 255 255 255
109.552513 -157.256958 602.000000 255 255 255
110.590813 -157.256958 602.000000 255 255 255
111.443672 -156.995728 601.000000 255 255 255
112.480240 -156.995728 601.000000 255 255 255
113.516815 -156.995728 601.000000 255 255 255
114.553383 -156.995728 601.000000 255 255 255
115.205299 -156.473282 599.000000 255 255 255
116.238411 -156.473282 599.000000 255 255 255
117.271538 -156.473282 599.000000 255 255 255
118.304657 -156.473282 599.000000 255 255 255
119.138550 -156.212067 598.000000 255 255 255
120.169945 -156.212067 598.000000 255 255 255
121.201332 -156.212067 598.000000 255 255 255
122.232735 -156.212067 598.000000 255 255 255
123.264130 -156.212067 598.000000 255 255 255
124.295525 -156.212067 598.000000 255 255 255
124.907761 -155.689606 596.000000 255 255 255
125.935715 -155.689606 596.000000 255 255 255
126.963654 -155.689606 596.000000 255 255 255
127.991608 -155.689606 596.000000 255 255 255
129.019547 -155.689606 596.000000 255 255 255
130.047501 -155.689606 596.000000 255 255 255
130.855515 -155.428391 595.000000 255 255 255
131.881729 -155.428391 595.000000 255 255 255
132.907959 -155.428391 595.000000 255 255 255
133.934174 -155.428391 595.000000 255 255 255
134.960403 -155.428391 595.000000 255 255 255
135.986618 -155.428391 595.000000 255 255 255
137.012848 -155.428391 595.000000 255 255 255
138.039063 -155.428391 595.000000 255 255 255
138.831573 -155.167160 594.000000 255 255 255
139.856064 -155.167160 594.000000 255 255 255
140.880554 -155.167160 594.000000 255 255 255
141.905060 -155.167160 594.000000 255 255 255
142.929550 -155.167160 594.000000 255 255 255
143.954056 -155.167160 594.000000 255 255 255
144.978546 -155.167160 594.000000 255 255 255
146.003036 -155.167160 594.000000 255 255 255
147.027542 -155.167160 594.000000 255 255 255
148.052032 -155.167160 594.000000 255 255 255
149.076538 -155.167160 594.000000 255 255 255
150.101028 -155.167160 594.000000 255 255 255
151.125519 -155.167160 594.000000 255 255 255
152.150024 -155.167160 594.000000 255 255 255
153.174515 -155.167160 594.000000 255 255 255
154.199005 -155.167160 594.000000 255 255 255
155.223511 -155.167160 594.000000 255 255 255
156.248016 -155.167160 594.000000 255 255 255
157.272491 -155.167160 594.000000 255 255 255
158.296997 -155.167160 594.000000 255 255 255
159.321503 -155.167160 594.000000 255 255 255
160.345993 -155.167160 594.000000 255 255 255
161.370483 -155.167160 594.000000 255 255 255
162.394989 -155.167160 594.000000 255 255 255
163.419479 -155.167160 594.000000 255 255 255
164.443970 -155.167160 594.000000 255 255 255
164.911331 -154.644714 592.000000 255 255 255
165.932388 -154.644714 592.000000 255 255 255
166.953445 -154.644714 592.000000 255 255 255
167.690735 -154.383484 591.000000 255 255 255
168.710068 -154.383484 591.000000 255 255 255
169.729385 -154.383484 591.000000 255 255 255
170.748703 -154.383484 591.000000 255 255 255
171.768021 -154.383484 591.000000 255 255 255
172.787354 -154.383484 591.000000 255 255 255
173.806686 -154.383484 591.000000 255 255 255
174.825989 -154.383484 591.000000 255 255 255
176.737930 -155.167160 594.000000 255 255 255
178.061691 -155.428391 595.000000 255 255 255
179.388916 -155.689606 596.000000 255 255 255
180.416840 -155.689606 596.000000 255 255 255
181.444794 -155.689606 596.000000 255 255 255
182.472748 -155.689606 596.000000 255 255 255
183.500687 -155.689606 596.000000 255 255 255
184.528625 -155.689606 596.000000 255 255 255
186.179260 -156.212067 598.000000 255 255 255
187.523712 -156.473282 599.000000 255 255 255
228.151566 -143.673294 550.000000 255 255 255
229.100174 -143.673294 550.000000 255 255 255
230.048798 -143.673294 550.000000 255 255 255
230.997406 -143.673294 550.000000 255 255 255
231.945999 -143.673294 550.000000 255 255 255
233.741501 -144.195755 552.000000 255 255 255
234.693558 -144.195755 552.000000 255 255 255
235.645615 -144.195755 552.000000 255 255 255
236.597672 -144.195755 552.000000 255 255 255
237.549728 -144.195755 552.000000 255 255 255
1656.550537 -1001.533508 3834.000000 255 255 255
1663.163086 -1001.533508 3834.000000 255 255 255
1775.578369 -1001.533508 3834.000000 255 255 255
1782.190918 -1001.533508 3834.000000 255 255 255
1788.803589 -1001.533508 3834.000000 255 255 255
1795.416382 -1001.533508 3834.000000 255 255 255
1802.029053 -1001.533508 3834.000000 255 255 255
1754.863525 -971.753967 3720.000000 255 255 255
1761.279541 -971.753967 3720.000000 255 255 255
1767.695679 -971.753967 3720.000000 255 255 255
1774.111572 -971.753967 3720.000000 255 255 255
1780.527710 -971.753967 3720.000000 255 255 255
1761.004272 -957.647827 3666.000000 255 255 255
1767.327148 -957.647827 3666.000000 255 255 255
1773.650024 -957.647827 3666.000000 255 255 255
1779.972900 -957.647827 3666.000000 255 255 255
1809.343140 -930.480530 3562.000000 255 255 255
1815.486694 -930.480530 3562.000000 255 255 255
1771.000854 -904.619324 3463.000000 255 255 255
1802.117188 -917.419312 3512.000000 255 255 255
1782.946411 -904.619324 3463.000000 255 255 255
1788.919434 -904.619324 3463.000000 255 255 255
1794.892090 -904.619324 3463.000000 255 255 255
1800.864746 -904.619324 3463.000000 255 255 255
1806.837646 -904.619324 3463.000000 255 255 255
1812.810425 -904.619324 3463.000000 255 255 255
1818.783081 -904.619324 3463.000000 255 255 255
1799.990356 -892.341797 3416.000000 255 255 255
1830.728760 -904.619324 3463.000000 255 255 255
1836.701416 -904.619324 3463.000000 255 255 255
1842.674316 -904.619324 3463.000000 255 255 255
1848.647095 -904.619324 3463.000000 255 255 255
-868.342224 -753.067444 2902.000000 255 255 255
-863.336975 -753.067444 2902.000000 255 255 255
-858.331787 -753.067444 2902.000000 255 255 255
-853.326538 -753.067444 2902.000000 255 255 255
-838.674744 -744.503967 2869.000000 255 255 255
-833.726440 -744.503967 2869.000000 255 255 255
-828.778137 -744.503967 2869.000000 255 255 255
-823.829895 -744.503967 2869.000000 255 255 255
-818.881592 -744.503967 2869.000000 255 255 255
-804.854919 -736.199951 2837.000000 255 255 255
-799.961792 -736.199951 2837.000000 255 255 255
-795.068787 -736.199951 2837.000000 255 255 255
-790.175659 -736.199951 2837.000000 255 255 255
-785.282532 -736.199951 2837.000000 255 255 255
-780.389526 -736.199951 2837.000000 255 255 255
-775.496399 -736.199951 2837.000000 255 255 255
-770.603271 -736.199951 2837.000000 255 255 255
-765.710144 -736.199951 2837.000000 255 255 255
-760.817139 -736.199951 2837.000000 255 255 255
-755.924011 -736.199951 2837.000000 255 255 255
-751.030884 -736.199951 2837.000000 255 255 255
-746.137817 -736.199951 2837.000000 255 255 255
-741.244751 -736.199951 2837.000000 255 255 255
-736.351624 -736.199951 2837.000000 255 255 255
-739.709045 -744.503967 2869.000000 255 255 255
-734.760803 -744.503967 2869.000000 255 255 255
-729.812500 -744.503967 2869.000000 255 255 255
-724.864197 -744.503967 2869.000000 255 255 255
-728.196533 -753.067444 2902.000000 255 255 255
-723.191406 -753.067444 2902.000000 255 255 255
-718.186218 -753.067444 2902.000000 255 255 255
-713.180969 -753.067444 2902.000000 255 255 255
-708.175781 -753.067444 2902.000000 255 255 255
-695.174500 -744.503967 2869.000000 255 255 255
-690.226196 -744.503967 2869.000000 255 255 255
-677.634583 -736.199951 2837.000000 255 255 255
-672.741455 -736.199951 2837.000000 255 255 255
-667.848389 -736.199951 2837.000000 255 255 255
-655.477417 -727.895996 2805.000000 255 255 255
-650.639587 -727.895996 2805.000000 255 255 255
-645.801636 -727.895996 2805.000000 255 255 255
-640.963745 -727.895996 2805.000000 255 255 255
